# .PCD v0.7 - Point Cloud Data file format
VERSION 0.7
FIELDS x y z rgb
SIZE 4 4 4 4
TYPE F F F U
COUNT 1 1 1 1
WIDTH 1096
HEIGHT 1
VIEWPOINT 0 0 0 1 0 0 0
POINTS 1096
DATA ascii
-1.048142 0.22158761 2.1087003 4280033581
-0.99975103 0.22158761 2.136246 4287922010
-0.95136011 0.22158761 2.1213567 4284438356
-0.92452788 0.12480579 1.9575872 4288313921
-0.90296918 0.092042841 1.9575872 4285168273
-0.90296918 0.12480579 1.9364471 4288313921
-0.8628962 0.12480579 1.9575872 4282336093
-0.93298608 0.1731967 1.9575872 4288578919
-0.90296918 0.1731967 1.9348923 4287265387
-0.85457826 0.15689534 1.9575872 4282335065
-0.85457826 0.1731967 1.9544117 4282137688
-0.85076523 0.1731967 1.9575872 4282269272
-0.93650526 0.22158761 1.9575872 4283188803
-0.90296918 0.22158761 1.9382627 4279836203
-0.85457826 0.22158761 1.9472165 4282267966
-0.83616036 0.22158761 1.9575872 4281414213
-0.89931715 -0.11714876 2.1511507 4287335330
-0.86221504 -0.068757847 2.1511507 4288252308
-0.85457826 -0.11714876 2.1105199 4288121237
-0.85457826 -0.068757847 2.1470325 4286541945
-0.85457826 -0.063600212 2.1511507 4285292644
-0.78183758 -0.020366937 2.1511507 4284044878
-0.75779647 -0.006691277 2.1511507 4286150762
-0.75779647 -0.020366937 2.1377406 4286282347
-0.57378459 -0.020366937 2.054369 4289111208
-0.66927129 -0.020366937 2.1027598 4288715930
-0.66101468 -0.018111903 2.1027598 4289110690
-0.66101468 -0.020366937 2.1001587 4289110690
-0.72274119 0.028023973 2.1511507 4287532161
-0.70940554 -0.020366937 2.1146824 4287926408
-0.70940554 0.028023973 2.1450191 4287926408
-0.66101468 0.028023973 2.1299608 4287927177
-0.71325439 0.076414883 2.1511507 4288388229
-0.70940554 0.076414883 2.1499608 4288585340
-0.66101468 0.076414883 2.1422701 4288256628
-0.61262375 -0.0064704996 2.1027598 4289440171
-0.61262375 -0.020366937 2.0827351 4289440171
-0.61262375 0.028023973 2.1243873 4288847781
-0.61262375 0.076414883 2.1387131 4288981346
-0.92293704 0.12480579 2.0059781 4285884248
-0.90296918 0.096291512 2.0059781 4283652721
-0.85457826 0.12130436 2.0059781 4284635494
-0.85457826 0.12480579 1.9697663 4281875287
-0.93647534 0.1731967 2.0059781 4283714894
-0.93272543 0.12480579 2.054369 4285622624
-0.90296918 0.12480579 2.0303659 4283782502
-0.85457826 0.12480579 2.0096867 4287069314
-0.91462946 0.1731967 2.054369 4283255640
-0.90296918 0.1731967 2.0495005 4283255640
-0.85457826 0.1731967 2.032937 4283321957
-0.85298818 0.12480579 2.0059781 4287069314
-0.83504355 0.1731967 2.0059781 4283387490
-0.94439083 0.22158761 2.0059781 4281743429
-0.90296918 0.18801761 2.054369 4282926935
-0.86605209 0.22158761 2.054369 4284440170
-0.85457826 0.22158761 2.0512633 4284440170
-0.85457826 0.23060331 2.054369 4284440425
-0.81547225 0.22158761 2.0059781 4283651175
-0.80618739 0.24560216 2.0059781 4283124830
-0.94462156 0.1731967 2.1027598 4286476122
-0.93159348 0.22158761 2.1027598 4282532431
-0.90296918 0.22158761 2.0701413 4282335310
-0.70940554 0.09800826 2.1511507 4284634445
-0.69638264 0.12480579 2.1511507 4285683756
-0.66101468 0.12480579 2.1473076 4286209582
-0.66101468 0.13437676 2.1511507 4287790650
-0.61262375 0.12480579 2.1454558 4289769300
-0.61262375 0.14306757 2.1511507 4289505876
-0.96220219 -0.020366937 2.2479327 4283977300
-0.95136011 0.015581419 2.2479327 4283977807
-0.95136011 -0.020366937 2.2366188 4284502873
-0.99692154 -0.020366937 2.2963235 4283649623
-0.98867118 0.028023973 2.2963235 4283584322
-0.95136011 0.028023973 2.2521057 4283385927
-0.97083652 0.076414883 2.2963235 4285426009
-0.95136011 0.076414883 2.2764738 4283584322
-1.0269809 -0.020366937 2.3447144 4283058499
-1.0221168 0.028023973 2.3447144 4285887343
-0.99975103 -0.020366937 2.3007998 4283649623
-0.99975103 0.028023973 2.3137569 4283584322
-1.0008324 0.076414883 2.3447144 4289307550
-0.99975103 0.076414883 2.3434474 4289307550
-0.95136011 0.10422548 2.2963235 4289307293
-0.99975103 0.077774256 2.3447144 4289307550
-0.96472198 0.12480579 2.3447144 4289898907
-0.95136011 0.12480579 2.3218548 4289767838
-0.95136011 0.13843346 2.3447144 4289898655
-1.1501976 0.028023973 2.4414964 4287599256
-1.1449237 0.023795232 2.4414964 4287862425
-1.1449237 0.028023973 2.4386144 4287796633
-1.2314689 0.076414883 2.4414964 4287204747
-1.1933147 0.045553274 2.4414964 4287402388
-1.1933147 0.076414883 2.4178896 4287402389
-1.1449237 0.076414883 2.4071729 4287797152
-1.260877 0.076414883 2.4898872 4288781471
-1.2417055 0.051008474 2.4898872 4287335829
-1.2417055 0.076414883 2.4548063 4288256409
-1.2061737 0.028023973 2.4898872 4287138965
-1.1933147 0.016243013 2.4898872 4287138967
-1.1933147 0.028023973 2.4744713 4287138966
-1.1553534 -0.020366937 2.4898872 4287270040
-1.1449237 -0.020366937 2.4787123 4287270040
-1.048142 -0.020366937 2.3781288 4288651677
-1.048142 0.028023973 2.3731427 4288781972
-1.048142 0.076414883 2.3813941 4288650129
-1.1020504 -0.020366937 2.4414964 4288520350
-1.2535367 0.12480579 2.4414964 4290098364
-1.2417055 0.096339509 2.4414964 4288454048
-1.2417055 0.12480579 2.4318845 4289309101
-1.2797642 0.1731967 2.4414964 4290362052
-1.2417055 0.1731967 2.4132957 4289439402
-1.1933147 0.12480579 2.4063516 4287928478
-1.1449237 0.12480579 2.4032094 4288126113
-1.1933147 0.1731967 2.3951192 4290690232
-1.1449237 0.1731967 2.3995917 4289373859
-1.3041908 0.22158761 2.4414964 4289440173
-1.2900965 0.18884607 2.4414964 4290296260
-1.2900965 0.22158761 2.4322505 4289572015
-1.2417055 0.22158761 2.4018123 4288847775
-1.220046 0.22158761 2.3931053 4285953402
-1.1933147 0.17811362 2.3931053 4288914337
-1.1933147 0.22158761 2.3908176 4285623926
-1.1644485 0.22158761 2.3931053 4281283381
-1.1933147 0.26060247 2.3931053 4285427065
-1.1449237 0.22158761 2.4028804 4282728247
-1.2817678 0.12480579 2.4898872 4290032312
-1.3384874 0.17152056 2.4898872 4289967036
-1.2900965 0.13368341 2.4898872 4289769400
-1.3384874 0.1731967 2.4888277 4289967036
-1.2900965 0.1731967 2.4514201 4290098880
-1.2900965 0.12480579 2.5216739 4290098878
-1.3384874 0.22158761 2.466799 4288849579
-1.0755941 0.076414883 2.3931053 4288650646
-1.048142 0.1028351 2.3931053 4288716175
-1.0965328 0.076414883 2.3987949 4288717471
-1.0965328 0.12480579 2.4052334 4288519319
-1.048142 0.12480579 2.3996935 4288715918
-1.0965328 0.1731967 2.4044218 4288247413
-1.048142 0.1731967 2.4071555 4289568655
-1.0201811 0.12480579 2.3931053 4288123275
-0.99975103 0.12480579 2.3842485 4288057228
-0.99975103 0.14582397 2.3931053 4287860106
-0.96932024 0.1731967 2.3931053 4289045406
-0.95136011 0.1731967 2.3834264 4289176987
-0.99975103 0.1731967 2.4028599 4289242014
-1.0965328 0.22158761 2.4156551 4288387230
-1.048142 0.22158761 2.4319797 4285032301
-1.048142 0.23389283 2.4414964 4284769388
-0.95136011 0.1897912 2.3931053 4289702821
-0.99975103 0.22158761 2.4344029 4279899917
-0.95136011 0.22158761 2.421037 4282465845
-0.99975103 0.22676519 2.4414964 4282927172
-0.95136011 0.23811345 2.4414964 4281609255
-0.89679259 -0.020366937 2.1995418 4284173391
-0.85457826 0.0026338084 2.1995418 4280098076
-0.85457826 -0.020366937 2.1821692 4280624417
-0.94631028 0.028023973 2.2479327 4283385927
-0.90296918 -0.020366937 2.2024732 4284173907
-0.90296918 0.028023973 2.2253201 4284502873
-0.85457826 0.028023973 2.2120392 4282137914
-0.90864998 0.076414883 2.2479327 4285096790
-0.90296918 0.076414883 2.2458382 4285096790
-0.85457826 0.076414883 2.228699 4287130456
-0.82167357 0.028023973 2.1995418 4280361505
-0.80618739 -0.020366937 2.1631327 4280426277
-0.80618739 0.028023973 2.1925409 4281084205
-0.75779647 0.028023973 2.1676521 4285953383
-0.80925387 0.076414883 2.1995418 4285028406
-0.80618739 0.076414883 2.1980832 4283451189
-0.75779647 0.076414883 2.1771119 4287267959
-0.90296918 0.08061409 2.2479327 4286412388
-0.85457826 0.1212512 2.2479327 4287000910
-0.80618739 0.09625607 2.1995418 4285551394
-0.79371715 0.12480579 2.1995418 4286604081
-0.75779647 0.12480579 2.1866176 4285486628
-0.75779647 0.16871691 2.1995418 4285223202
-0.85087603 0.12480579 2.2479327 4286803537
-0.80618739 0.12480579 2.2075181 4285290024
-0.81490105 0.1731967 2.2479327 4285487415
-0.80618739 0.1731967 2.241231 4286407222
-0.75779647 0.1731967 2.202203 4285354529
-0.80618739 0.18628018 2.2479327 4286144819
-0.77043319 0.22158761 2.2479327 4281938744
-0.75779647 0.22158761 2.2401958 4279570959
-0.75779647 0.23458618 2.2479327 4284568880
-0.93108404 0.12480579 2.2963235 4289569952
-0.90296918 0.12480579 2.279927 4288911759
-0.85457826 0.12480579 2.2506969 4286277715
-0.90296918 0.14408506 2.2963235 4288911510
-0.8634851 0.1731967 2.2963235 4288844416
-0.85457826 0.1731967 2.2886088 4287199587
-0.91434699 0.1731967 2.3447144 4290095779
-0.90296918 0.1731967 2.3303208 4289767068
-0.85457826 0.18531363 2.2963235 4288119402
-0.90296918 0.18498209 2.3447144 4290095779
-0.87359947 0.22158761 2.3447144 4281475098
-0.85457826 0.22158761 2.3198116 4284895512
-0.82974154 0.22158761 2.2963235 4285816636
-0.80618739 0.22158761 2.2756453 4286604597
-0.80618739 0.26083508 2.2963235 4286475326
-0.70940554 0.12480579 2.1557028 4286603817
-0.75399858 0.1731967 2.1995418 4284368667
-0.70940554 0.1731967 2.1881127 4284566559
-0.66101468 0.1731967 2.1745296 4286145336
-0.61262375 0.1731967 2.1645651 4285354790
-0.70940554 0.21474056 2.1995418 4280162331
-0.70006275 0.22158761 2.1995418 4279308304
-0.66101468 0.22158761 2.1954062 4285880614
-0.66101468 0.23004435 2.1995418 4285486888
-0.70940554 0.22158761 2.2039032 4279242769
-0.61262375 0.22158761 2.1937687 4284434462
-0.61262375 0.23401688 2.1995418 4285355043
-0.90811467 0.22158761 2.3931053 4283253304
-0.90296918 0.22158761 2.3878312 4281872426
-0.90296918 0.22688922 2.3931053 4280030219
-0.9893505 -0.79462147 1.7640235 4290225598
-0.95136011 -0.81949997 1.7640235 4290488772
-0.95136011 -0.79462147 1.7535043 4290488772
-1.0244397 -0.69783968 1.7640235 4289765049
-1.0004857 -0.60105789 1.7640235 4286869900
-0.85457826 -0.83202815 1.7640235 4290488772
-0.63757753 -0.11714876 1.3768963 4289899433
-0.85457826 -0.3107124 1.5560844 4289966520
-0.75779647 -0.3107124 1.5580685 4290163642
-0.89980853 -0.21393058 1.5704598 4289242278
-0.85457826 -0.27450708 1.5704598 4289966264
-0.75779647 -0.29199725 1.5704598 4290032057
-0.93077534 -0.11714876 1.5704598 4283452752
-0.62769824 -0.21393058 1.4736781 4289899953
-0.57643908 -0.11714876 1.4736781 4283119132
-0.66101468 -0.23654737 1.5704598 4290097590
-0.63498211 -0.21393058 1.5704598 4289965746
-0.85457826 -0.21393058 1.61725 4289242278
-0.75779647 -0.21393058 1.6450366 4289571242
-0.86343932 -0.11714876 1.6672417 4283452752
-0.85457826 -0.1306664 1.6672417 4283387216
-0.75779647 -0.19112182 1.6672417 4289176741
-0.85457826 -0.11714876 1.6796227 4283452752
-0.75779647 -0.11714876 1.7386947 4287009445
-0.66101468 -0.21393058 1.6082398 4289834416
-0.66101468 -0.17507371 1.6672417 4289242278
-0.57830685 -0.11714876 1.6672417 4283119132
-0.66101468 -0.11714876 1.7394688 4286878114
-0.95680904 0.076414883 1.5704598 4291216585
-0.95136011 0.0084744468 1.5704598 4285558389
-0.95136011 0.076414883 1.4898252 4292005844
-0.95330501 0.1731967 1.4736781 4281413692
-0.95136011 0.14142318 1.5704598 4286874505
-0.95136011 0.1731967 1.5675651 4282269000
-0.95136011 0.076414883 1.586019 4291216585
-0.94676769 -0.020366937 1.5704598 4283716184
-0.94305772 0.1731967 1.5704598 4282269000
-0.89889699 -0.020366937 1.6672417 4284113275
-0.8966006 0.076414883 1.6672417 4282666083
-0.85457826 -0.020366937 1.7121646 4284179321
-0.75779647 -0.020366937 1.7494771 4284179321
-0.85457826 0.076414883 1.6985146 4282666083
-0.75779647 0.076414883 1.7269962 4282731620
-0.69439119 -0.020366937 1.7640235 4284179321
-0.66101468 -0.09017697 1.7640235 4286878114
-0.57407624 -0.020366937 1.7640235 4282862938
-0.66101468 0.0079110581 1.7640235 4284179321
-0.66101468 0.076414883 1.744031 4281871912
-0.85551274 0.1731967 1.6672417 4282402652
-0.85457826 0.17441873 1.6672417 4282402652
-0.75779647 0.24454479 1.6672417 4281804821
-0.85457826 0.1731967 1.6678505 4282402652
-0.75779647 0.1731967 1.6995158 4281871911
-0.66101468 0.1731967 1.720968 4281804821
-0.99310219 -0.89140332 1.8608054 4289435830
-0.95136011 -0.91387171 1.8608054 4290159553
-0.95136011 -0.89140332 1.8241017 4290488772
-1.0631208 -0.89140332 1.9575872 4289435830
-1.048142 -0.90250641 1.9575872 4289435830
-1.048142 -0.89140332 1.9292154 4289435830
-0.95136011 -0.95125031 1.9575872 4289435830
-0.85457826 -0.93297523 1.8608054 4290159553
-0.85457826 -0.89140332 1.8030622 4290488772
-0.75779647 -0.91373432 1.8608054 4290159553
-0.75779647 -0.89140332 1.837543 4290159553
-0.85457826 -0.97034496 1.9575872 4290159553
-0.75779647 -0.95973068 1.9575872 4290159553
-0.72364056 -0.89140332 1.8608054 4290159553
-0.66101468 -0.92253298 1.9575872 4290159553
-0.66101468 -0.89140332 1.9161882 4290159553
-0.60555035 -0.89140332 1.9575872 4290291393
-1.0905515 -0.79462147 1.8608054 4289435830
-1.048142 -0.84733564 1.8608054 4289435830
-1.048142 -0.79462147 1.8028933 4289765049
-1.1240721 -0.69783968 1.8608054 4287527835
-1.048142 -0.69783968 1.7774335 4289765049
-1.1348751 -0.79462147 1.9575872 4289435830
-1.1449237 -0.74458623 1.9575872 4289108412
-1.1449237 -0.69783968 1.9438207 4287397795
-1.1287992 -0.60105789 1.8608054 4286869900
-1.048142 -0.60105789 1.7906315 4286869900
-1.1004061 -0.50427604 1.8608054 4291083473
-1.048142 -0.50427604 1.812571 4290030014
-1.1393737 -0.60105789 1.9575872 4290558158
-1.1449237 -0.6693424 1.9575872 4288386225
-1.1300375 -0.50427604 1.9575872 4292203236
-0.66101468 -0.82343042 1.8608054 4290291393
-0.64747339 -0.79462147 1.8608054 4290291393
-0.62862754 -0.69783968 1.8608054 4286937755
-0.64801943 -0.60105789 1.8608054 4289638355
-0.66101468 -0.50427604 1.8728276 4290100712
-0.5701499 -0.89140332 2.1511507 4288582323
-0.87166458 -0.69783968 2.3447144 4285824642
-0.93611503 -0.60105789 2.3447144 4285232499
-0.85457826 -0.69783968 2.3469443 4285824642
-0.85457826 -0.60105789 2.363379 4285232499
-0.77814126 -0.69783968 2.3447144 4289967317
-0.75779647 -0.6747725 2.3447144 4289967317
-0.75779647 -0.60105789 2.357631 4290100189
-0.91316819 -0.50427604 2.3447144 4285757291
-0.85457826 -0.50427604 2.3594389 4285757291
-0.75779647 -0.50427604 2.3608055 4284177515
-0.71304506 -0.60105789 2.3447144 4290100189
-0.66101468 -0.5187462 2.3447144 4289646005
-0.66101468 -0.50427604 2.3478065 4285960814
-1.4352692 0.1731967 2.5373521 4289966778
-1.048142 -0.4250885 1.8608054 4291215571
-1.0330722 -0.40749422 1.8608054 4291215571
-0.95136011 -0.40749422 1.8244736 4291215571
-0.95136011 -0.35570377 1.8608054 4291215571
-1.0995303 -0.40749422 1.9575872 4291412425
-1.048142 -0.40749422 1.8828292 4291215571
-1.048142 -0.34434295 1.9575872 4288384917
-1.0001545 -0.3107124 1.9575872 4287795366
-0.95136011 -0.3107124 1.9206918 4289243580
-0.95136011 -0.28113484 1.9575872 4287664296
-1.051502 -0.3107124 2.054369 4288581522
-1.048142 -0.30813172 2.054369 4288581522
-1.048142 -0.3107124 2.034683 4288581522
-0.95136011 -0.24051619 2.054369 4287664296
-1.048142 -0.3107124 2.1077912 4288581522
-1.0279747 -0.3107124 2.1511507 4288581522
-0.95136011 -0.22359607 2.1511507 4287795366
-0.85457826 -0.31119457 1.8608054 4292203493
-0.75779647 -0.40749422 1.8616391 4292731126
-0.85457826 -0.3107124 1.8610626 4292203493
-0.75779647 -0.3107124 1.8777266 4291808740
-0.66101468 -0.40749422 1.8934337 4291612909
-0.66101468 -0.3107124 1.8991245 4291612909
-0.85457826 -0.22896414 1.9575872 4287662752
-0.82235807 -0.21393058 1.9575872 4287989912
-0.75779647 -0.21393058 1.9334677 4287597723
-0.75779647 -0.17877968 1.9575872 4287728793
-0.60302067 -0.21393058 1.8608054 4289440171
-0.61461258 -0.11714876 1.8608054 4288848523
-0.66101468 -0.21393058 1.8864315 4288518818
-0.66694868 -0.11714876 1.9575872 4289440171
-0.66101468 -0.11714876 1.9477478 4289440171
-0.91420668 -0.21393058 2.054369 4287664296
-0.85457826 -0.21393058 1.9747274 4287662752
-0.85457826 -0.17038496 2.054369 4287989912
-0.76882058 -0.11714876 2.054369 4288054411
-0.75779647 -0.11714876 2.0469232 4288252555
-0.94402349 -0.21393058 2.1511507 4287664296
-0.66101468 -0.020366937 1.770473 4284179321
-0.66101468 -0.11266896 1.9575872 4289440171
-0.75779647 -0.11061329 2.054369 4287595650
-0.66101468 -0.059293944 2.054369 4289242276
-0.95604628 -0.3107124 2.2479327 4288713106
-0.95950598 -0.21393058 2.2479327 4288713106
-0.95136011 -0.21393058 2.1777153 4287795366
-0.96052313 -0.11714876 2.2479327 4288647308
-0.95136011 -0.11714876 2.2296391 4288253590
-0.95136011 -0.3107124 2.2539911 4288713106
-0.95136011 -0.21393058 2.3133974 4288713364
-1.0004779 -0.11714876 2.3447144 4287925387
-0.95136011 -0.19567323 2.3447144 4285032039
-1.0104351 -0.11714876 2.4414964 4284901750
-0.95136011 -0.15523031 2.4414964 4286084465
-0.95136011 -0.11714876 2.5184054 4281480001
-0.93923873 -0.21393058 2.3447144 4285032039
-0.85457826 -0.30982929 2.3447144 4282136113
-0.85457826 -0.3107124 2.3442817 4282136113
-0.85389012 -0.3107124 2.3447144 4282136113
-0.85457826 -0.42515939 2.3447144 4285557876
-0.84077305 -0.40749422 2.3447144 4283848030
-0.75779647 -0.40749422 2.3587549 4281083944
-0.75779647 -0.3107124 2.3839161 4282136113
-0.66101468 -0.40749422 2.3661125 4282274849
-0.66101468 -0.3107124 2.4019909 4283130157
-0.85457826 -0.21393058 2.4225719 4284571486
-0.80118072 -0.21393058 2.4414964 4283321163
-0.75779647 -0.2260512 2.4414964 4282991166
-0.85457826 -0.19673577 2.4414964 4284571486
-0.75779647 -0.21393058 2.4510529 4282991166
-0.85457826 -0.11714876 2.5358016 4282531913
-0.75779647 -0.11714876 2.5275419 4291218825
-0.66101468 -0.24357311 2.4414964 4283261483
-0.66101468 -0.21393058 2.4602206 4287605343
-0.66101468 -0.11714876 2.5209363 4285361255
-1.048142 -0.084173881 2.4414964 4288454302
-0.98204893 -0.89140332 2.1511507 4288516271
-0.95136011 -0.90543264 2.1511507 4288516271
-0.75779647 -0.93613476 2.1511507 4288516271
-1.1477518 -0.69783968 1.9575872 4287660965
-1.1449237 -0.69783968 2.0981333 4286875282
-1.142061 -0.69783968 2.1511507 4285232499
-1.1349508 -0.50427604 2.1511507 4285363312
-0.95136011 -0.89140332 2.1662583 4288516271
-0.75779647 -0.89140332 2.2018352 4288516271
-0.95136011 -0.69783968 2.2769496 4285824642
-0.95136011 -0.50427604 2.3086941 4285363312
-0.75779647 -0.69783968 2.3350844 4289967317
-0.86264038 0.31836945 1.3768963 4284507504
-0.85457826 0.31836945 1.3671763 4284375915
-0.85457826 0.32692733 1.3768963 4284375915
-0.81513661 0.31836945 1.3285054 4283915362
-0.80618739 0.31836945 1.3234721 4283915362
-0.75779647 0.31836945 1.3103225 4281875261
-0.80618739 0.32527262 1.3285054 4283915362
-0.75779647 0.33710748 1.3285054 4283520346
-0.80618739 0.35592672 1.3768963 4283915362
-0.75779647 0.36149639 1.3768963 4283520346
-0.71051717 0.31836945 1.3285054 4281347878
-0.70940554 0.31748337 1.3285054 4281347878
-0.70940554 0.31836945 1.3298095 4281347878
-0.66786021 0.31836945 1.3768963 4282331416
-0.66101468 0.31021395 1.3768963 4282659353
-0.70940554 0.34940529 1.3768963 4282466104
-0.90296918 0.28768355 1.4252871 4281677890
-0.88334322 0.31836945 1.4252871 4282270024
-0.85457826 0.34431264 1.4252871 4283322970
-0.90296918 0.29738081 1.4736781 4279374367
-0.88469821 0.31836945 1.4736781 4279308824
-0.85457826 0.34205836 1.4736781 4281085493
-0.81228054 0.36676034 1.4252871 4282862417
-0.80618739 0.36676034 1.4149632 4282862417
-0.75779647 0.36676034 1.3925546 4282730574
-0.80764276 0.36676034 1.4736781 4281085492
-0.66101468 0.31836945 1.3869289 4282199828
-0.70940554 0.36676034 1.4195215 4281676588
-0.70397729 0.36676034 1.4252871 4281148691
-0.66101468 0.3441945 1.4252871 4282068501
-0.66153044 0.36676034 1.4736781 4280752643
-0.66101468 0.36660749 1.4736781 4280752643
-0.63223678 0.31836945 1.4252871 4280818695
-0.61262375 0.28817606 1.4252871 4281539849
-0.61262375 0.31836945 1.444677 4279241476
-0.61262375 0.35828662 1.4736781 4278978819
-0.59103072 0.36676034 1.4736781 4278978819
-0.66101468 0.36676034 1.4741439 4280752643
-0.61262375 0.36676034 1.4831048 4279767556
-0.63902068 0.36676034 1.6188508 4281015043
-0.66101468 0.35622284 1.6188508 4281015043
-0.66101468 0.36676034 1.598866 4281015043
-0.64242393 0.31836945 1.6672417 4281015043
-0.66101468 0.30588996 1.6672417 4281015043
-0.66101468 0.31836945 1.6587924 4281015043
-0.61262375 0.33832508 1.6672417 4281015043
-0.61262375 0.36676034 1.6403617 4281015043
-1.4116696 0.85066944 2.1511507 4287532164
-1.3868783 0.86191064 2.1511507 4287992972
-1.3868783 0.85066944 2.146769 4288190611
-1.3384874 0.86829841 2.1511507 4288519574
-1.3384874 0.85066944 2.1432574 4288519574
-1.7538388 0.75388765 2.3931053 4287860615
-1.7390411 0.80227852 2.3931053 4287926156
-1.7256147 0.75388765 2.3502269 4287794832
-1.7256147 0.80227852 2.3669574 4287926158
-1.7256147 0.84284031 2.3931053 4287991693
-1.7839265 0.75388765 2.4414964 4287070587
-1.7740055 0.77735871 2.4414964 4287070587
-1.7740055 0.75388765 2.4252155 4287267963
-1.7644025 0.80227852 2.4414964 4287399809
-1.7540817 0.85066944 2.4414964 4287860616
-1.7256147 0.85066944 2.3971977 4287991948
-1.8388854 0.6571058 2.4898872 4287531398
-1.8286388 0.70549673 2.4898872 4287729033
-1.8223965 0.6571058 2.4677365 4287597701
-1.8223965 0.70549673 2.4805918 4287334528
-1.8223965 0.72530615 2.4898872 4287531909
-1.8707874 0.6571058 2.5326345 4287860616
-1.8223965 0.75388765 2.5081174 4287466116
-1.8022212 0.6571058 2.4414964 4287465858
-1.7959918 0.70549673 2.4414964 4287268225
-1.8118659 0.75388765 2.4898872 4287334273
-1.7884432 0.80227852 2.4898872 4287334018
-1.7740055 0.80227852 2.4601581 4287070587
-1.7785562 0.85066944 2.4898872 4287662723
-1.7740055 0.85066944 2.4697721 4287399554
-1.7740055 0.85066944 2.5134873 4287465865
-1.7256147 0.85066944 2.5288446 4287531395
-1.7256147 0.87537587 2.4414964 4288058254
-1.7740055 0.85603309 2.4898872 4287794569
-1.7256147 0.86545122 2.4898872 4287861396
-1.5368694 0.75388765 2.1995418 4287663239
-1.5490534 0.80227852 2.1995418 4287597447
-1.5320511 0.75388765 2.1974485 4287663239
-1.5320511 0.80227852 2.1909695 4287663239
-1.5320511 0.84277165 2.1995418 4287663239
-1.626806 0.75388765 2.2479327 4287729288
-1.6288328 0.80159259 2.2479327 4287531907
-1.6288328 0.80227852 2.2477314 4287531907
-1.580442 0.75388765 2.2200861 4287663495
-1.580442 0.80227852 2.2164416 4287728773
-1.6156892 0.85066944 2.2479327 4287466116
-1.6288328 0.8042478 2.2479327 4287466114
-1.580442 0.85066944 2.2266755 4287531907
-1.5320511 0.85066944 2.2019596 4287663239
-1.6820483 0.75388765 2.2963235 4287663242
-1.6803958 0.80227852 2.2963235 4287597191
-1.6772238 0.75388765 2.29128 4287597191
-1.6772238 0.80227852 2.2926524 4287597191
-1.6290987 0.80227852 2.2479327 4287531907
-1.6288328 0.75388765 2.2493689 4287729288
-1.6772238 0.81764877 2.2963235 4287597191
-1.6694164 0.85066944 2.2963235 4287531654
-1.6288328 0.85066944 2.2564781 4287466116
-1.7217743 0.75388765 2.3447144 4287860623
-1.7136576 0.80227852 2.3447144 4287663501
-1.6990169 0.85066944 2.3447144 4287663497
-1.6772238 0.85066944 2.3070188 4287531912
-1.4836601 0.75388765 2.1795475 4287794566
-1.4836601 0.80227852 2.1692593 4287729027
-1.4352692 0.75388765 2.1663489 4287663490
-1.4352692 0.80227852 2.1535804 4287597955
-1.5277772 0.85066944 2.1995418 4287663238
-1.4836601 0.85066944 2.1746781 4287729029
-1.4352692 0.85066944 2.1563153 4287663494
-1.4249897 0.80227852 2.1511507 4287532164
-1.3868783 0.77062315 2.1511507 4288190353
-1.3868783 0.75388765 2.1592577 4288519320
-1.3384874 0.76667649 2.1511507 4288584593
-1.3384874 0.75388765 2.1590033 4288584593
-1.580442 0.8965351 2.2479327 4287597442
-1.5766455 0.89906037 2.2479327 4287531649
-1.5320511 0.89906037 2.2295523 4287597192
-1.5320511 0.91102445 2.2479327 4287531908
-1.6568103 0.89906037 2.2963235 4287531909
-1.6288328 0.89906037 2.2720892 4287531653
-1.6288328 0.92064118 2.2963235 4287597192
-1.686499 0.89906037 2.3447144 4287597958
-1.6772238 0.89906037 2.3261585 4287531911
-1.6772238 0.90573609 2.3447144 4287466117
-1.6288328 0.91475922 2.3447144 4287663753
-1.580442 0.89906037 2.2492969 4287597442
-1.580442 0.92405105 2.2963235 4287992724
-1.5320511 0.91757023 2.2963235 4287861135
-1.580442 0.91204709 2.3447144 4288453275
-1.5320511 0.90667975 2.3447144 4288453273
-1.4836601 0.89889348 2.1995418 4287662469
-1.4834645 0.89906037 2.1995418 4287662469
-1.4352692 0.89906037 2.177844 4287663494
-1.4352692 0.91259867 2.1995418 4287531647
-1.4836601 0.89906037 2.1996613 4287662469
-1.4836601 0.91613114 2.2479327 4287400321
-1.4352692 0.91762269 2.2479327 4287861130
-1.3868783 0.89906037 2.1701841 4287992714
-1.3384874 0.89906037 2.1686435 4288189582
-1.3868783 0.91483527 2.1995418 4288058507
-1.3384874 0.91523397 2.1995418 4287926923
-1.3868783 0.91799551 2.2479327 4288321428
-1.3384874 0.91900933 2.2479327 4288518552
-1.4836601 0.911847 2.2963235 4288322195
-1.4352692 0.91067296 2.2963235 4288189841
-1.4836601 0.90311778 2.3447144 4288453266
-1.4352692 0.90439445 2.3447144 4288584344
-1.3868783 0.91245395 2.2963235 4288584597
-1.3384874 0.91341752 2.2963235 4288519057
-1.3868783 0.90591186 2.3447144 4288913819
-1.3384874 0.90667605 2.3447144 4288584599
-1.7229793 0.85066944 2.3931053 4287991948
-1.6772238 0.85066944 2.5287442 4288453272
-1.6288328 0.85066944 2.5332689 4287926408
-1.6910268 0.89906037 2.3931053 4288058254
-1.6758504 0.89906037 2.3931053 4287597446
-1.6288328 0.89902639 2.3931053 4287860622
-1.6288328 0.89906037 2.3930275 4287860622
-1.6772238 0.90188098 2.3931053 4287597445
-1.6772238 0.88311195 2.4414964 4288454296
-1.6772238 0.89906037 2.4049213 4287926927
-1.6288328 0.88073951 2.4414964 4288584600
-1.580442 0.89249462 2.3931053 4288518806
-1.580442 0.89906037 2.3770182 4288189843
-1.5320511 0.89095581 2.3931053 4288255120
-1.5320511 0.89906037 2.3676226 4288453272
-1.580442 0.87612164 2.4414964 4288584862
-1.5320511 0.87674189 2.4414964 4288716185
-1.6772238 0.86379355 2.4898872 4288387738
-1.6288328 0.86381346 2.4898872 4288255894
-1.580442 0.86473793 2.4898872 4288189073
-1.5320511 0.86687112 2.4898872 4288320918
-1.4836601 0.89470756 2.3931053 4288584340
-1.4836601 0.89906037 2.3661706 4288650138
-1.4352692 0.89725351 2.3931053 4288583831
-1.4352692 0.89906037 2.3789096 4288584087
-1.4836601 0.88280553 2.4414964 4288650399
-1.4352692 0.88663328 2.4414964 4288848028
-1.3868783 0.89589417 2.3931053 4288913047
-1.3868783 0.89906037 2.3763673 4288650136
-1.3384874 0.89766848 2.3931053 4288979101
-1.3384874 0.89906037 2.3856382 4289110685
-1.3868783 0.88643986 2.4414964 4288979360
-1.3384874 0.88894594 2.4414964 4288715674
-1.4836601 0.87175405 2.4898872 4288781980
-1.4352692 0.8751691 2.4898872 4288782236
-1.3868783 0.87652481 2.4898872 4288913306
-1.3384874 0.87932032 2.4898872 4288913306
-0.96310598 0.31836945 2.0059781 4281677896
-0.95136011 0.27260128 2.0059781 4281414471
-0.95136011 0.31836945 1.9799051 4279506730
-0.97951001 0.36676034 2.0059781 4279967535
-0.95136011 0.36676034 1.9791398 4279967536
-0.99975103 0.27296972 2.054369 4281414721
-0.97759092 0.31836945 2.054369 4281677645
-0.98728633 0.36676034 2.054369 4281611852
-0.98101074 0.41515124 2.0059781 4280098864
-0.95136011 0.41515124 1.9898702 4280033330
-0.95136011 0.45036197 2.0059781 4279770920
-0.99132568 0.41515124 2.054369 4279902503
-0.96305764 0.46354216 2.054369 4279770920
-0.95136011 0.46354216 2.0256927 4279705128
-1.0055666 0.31836945 2.1027598 4281480518
-0.99975103 0.31836945 2.0811985 4281546313
-0.99975103 0.32347611 2.1027598 4281743436
-0.95859259 0.36676034 2.1027598 4281611598
-0.99975103 0.31836945 2.1142864 4281743184
-0.95136011 0.31836945 2.1195111 4281414732
-0.95136011 0.36676034 2.1060975 4281611598
-0.95136011 0.47247958 2.054369 4279705128
-0.93013334 0.31836945 1.9575872 4279440935
-0.90296918 0.31836945 1.949789 4279375649
-0.85457826 0.31836945 1.9487264 4280559670
-0.90296918 0.35249767 1.9575872 4279507241
-0.8939262 0.36676034 1.9575872 4279507239
-0.85457826 0.36676034 1.955742 4279900455
-0.82357049 0.31836945 1.9575872 4281414464
-0.83852059 0.36676034 1.9575872 4280098606
-0.85457826 0.37652329 1.9575872 4279835690
-0.90296918 0.36676034 1.9611214 4279704361
-0.80618739 0.31836945 1.969089 4281743175
-0.77790976 0.31836945 2.0059781 4280954174
-0.80618739 0.36676034 1.9683194 4280887354
-0.76535904 0.36676034 2.0059781 4281875027
-0.80618739 0.29015788 2.054369 4284374117
-0.78875995 0.31836945 2.054369 4281743185
-0.76694399 0.36676034 2.054369 4282137930
-0.90296918 0.41515124 1.9747294 4279572522
-0.85457826 0.41515124 1.9662375 4280032554
-0.92780966 0.46354216 2.0059781 4279705128
-0.90296918 0.46354216 1.9987271 4279573026
-0.85457826 0.46354216 1.9884514 4279638309
-0.80618739 0.41515124 1.9736023 4281151557
-0.75959742 0.41515124 2.0059781 4282007383
-0.80618739 0.46354216 1.9941794 4281612611
-0.78066653 0.46354216 2.0059781 4282138965
-0.75779647 0.40191421 2.054369 4283256410
-0.75779647 0.41515124 2.0183785 4282533207
-0.76879102 0.46354216 2.054369 4283191130
-0.75779647 0.43992338 2.054369 4283256416
-0.90296918 0.29872021 2.1027598 4281349196
-0.88592464 0.31836945 2.1027598 4281349196
-0.85457826 0.31836945 2.0947182 4283124316
-0.85457826 0.35264093 2.1027598 4281677390
-0.90296918 0.31836945 2.1074145 4281349196
-0.90296918 0.36676034 2.11222 4281414732
-0.85457826 0.36676034 2.1054444 4282203476
-0.80618739 0.31836945 2.0712976 4281743185
-0.84546918 0.36676034 2.1027598 4282598229
-0.80618739 0.36676034 2.0901031 4283124310
-0.83276558 0.41515124 2.1027598 4282993243
-0.80618739 0.41515124 2.0959735 4282993243
-0.75779647 0.41515124 2.0574114 4283256410
-0.85457826 0.44484177 2.1027598 4283124827
-0.85457826 0.46354216 2.0979474 4283190621
-0.80618739 0.46354216 2.0871985 4283190621
-0.85457826 0.41515124 2.1079357 4282795862
-0.7563625 0.41515124 2.054369 4283256414
-0.90296918 0.47397777 2.0059781 4279573026
-0.85457826 0.48575875 2.0059781 4279638309
-0.90296918 0.49301118 2.054369 4279639074
-0.85457826 0.49957839 2.054369 4279967785
-0.80618739 0.47913319 2.0059781 4281744203
-0.80618739 0.49187848 2.054369 4282730074
-1.2900965 0.86307287 2.1511507 4288386707
-1.2900965 0.85066944 2.1453907 4288321426
-1.2417055 0.85176003 2.1511507 4288847264
-1.2417055 0.85066944 2.1506431 4288847264
-1.2375879 0.85066944 2.1511507 4288847264
-0.80167842 0.94745123 1.9575872 4288716425
-0.80368829 0.99584216 1.9575872 4288782219
-0.75779647 0.94745123 1.9311939 4288781960
-0.75779647 0.99584216 1.9338422 4288848009
-0.75779647 1.0375241 1.9575872 4288519046
-0.58532667 0.94745123 1.8608054 4287794551
-0.59626591 0.99584216 1.8608054 4287729786
-0.60487509 1.0442331 1.8608054 4287795066
-0.71234399 0.94745123 1.9091963 4288650629
-0.70940554 0.97546864 1.9091963 4288584580
-0.70940554 0.94745123 1.9078965 4288584580
-0.70370889 0.99584216 1.9091963 4288387460
-0.66101468 0.94745123 1.8902496 4287729791
-0.66101468 0.99584216 1.8907553 4287795326
-0.67766935 1.0442331 1.9091963 4287400825
-0.66101468 1.0442331 1.8948283 4287729531
-0.70940554 0.99584216 1.9120245 4288518788
-0.70940554 1.0401202 1.9575872 4287071864
-0.67834234 1.0442331 1.9575872 4286940278
-0.61262375 0.94745123 1.8719264 4287729017
-0.61262375 0.99584216 1.8693887 4287729017
-0.61262375 1.0442331 1.8656248 4287860346
-0.8780697 0.89906037 2.054369 4288979601
-0.85457826 0.85851997 2.054369 4289110930
-0.85457826 0.89906037 2.0238366 4289176722
-0.87743175 0.94745123 2.054369 4289044878
-0.85457826 0.94745123 2.0188127 4288979601
-0.83768809 0.89906037 2.0059781 4289044877
-0.80618739 0.85692507 2.0059781 4288913549
-0.80618739 0.89906037 1.9782178 4288978827
-0.79838741 0.85066944 2.0059781 4288979342
-0.7781235 0.89906037 1.9575872 4288978574
-0.75779647 0.87271768 1.9575872 4289044364
-0.75779647 0.85066944 1.9742361 4288913036
-0.8455168 0.94745123 2.0059781 4288913552
-0.80618739 0.94745123 1.9614886 4288847754
-0.84529233 0.85066944 2.054369 4289110930
-0.80618739 0.85066944 2.0128789 4288913550
-0.85457826 0.9738124 2.054369 4289045134
-0.82038212 0.99584216 2.0059781 4289110414
-0.80618739 0.99584216 1.9613317 4288782219
-0.80618739 1.0084738 2.0059781 4288979085
-0.75779647 1.0318444 2.0059781 4287926401
-0.81700808 0.99584216 2.054369 4288913806
-0.80618739 1.0001299 2.054369 4289045135
-0.75779647 1.0163095 2.054369 4288321670
-0.87385976 0.85066944 2.1027598 4288979600
-0.90032136 0.89906037 2.1027598 4289045390
-0.85457826 0.85066944 2.067075 4288913808
-0.89689779 0.94745123 2.1027598 4288980113
-0.9061029 0.89906037 2.1511507 4288848525
-0.90296918 0.87105852 2.1511507 4288848524
-0.90296918 0.89906037 2.1163733 4288979596
-0.88857621 0.85066944 2.1511507 4288848266
-0.90296918 0.92304981 2.1511507 4288848525
-0.89711046 0.94745123 2.1511507 4288848524
-0.85457826 0.98355395 2.1027598 4288979857
-0.85457826 0.98305994 2.1511507 4288782223
-0.82027286 0.99584216 2.1027598 4288848013
-0.80618739 0.99904382 2.1027598 4288716173
-0.75779647 1.0038301 2.1027598 4288321413
-0.80618739 0.99554461 2.1511507 4288387210
-0.80618739 0.99584216 2.1483543 4288387210
-0.75779647 0.99378133 2.1511507 4287861377
-0.75779647 0.99584216 2.139838 4287992452
-0.73188466 0.85066944 1.9575872 4288978572
-0.70940554 1.0376201 2.0059781 4287005817
-0.66101468 1.0432533 2.0059781 4286808691
-0.66101468 1.0442331 1.9952195 4286874483
-0.70940554 1.02639 2.054369 4287071608
-0.66101468 1.0351709 2.054369 4287005818
-0.65351856 1.0442331 2.0059781 4286808691
-0.61262375 1.0399579 2.054369 4287006324
-0.61262375 1.0442331 2.0353477 4287006069
-0.70940554 1.0050713 2.1027598 4287794814
-0.66101468 1.0152248 2.1027598 4287202684
-0.70940554 0.99291593 2.1511507 4286677110
-0.70940554 0.99584216 2.1350091 4287532160
-0.6697154 0.99584216 2.1511507 4286215787
-0.66101468 0.99702209 2.1511507 4286149739
-0.61262375 1.0245979 2.1027598 4287202680
-0.61262375 1.0022891 2.1511507 4285689191
-1.3105335 0.31836945 2.4414964 4289046188
-1.2900965 0.31836945 2.4344609 4288716960
-1.2417055 0.31836945 2.4212813 4288058519
-1.2963543 0.36676034 2.4414964 4288849067
-1.2900965 0.36676034 2.43993 4288849067
-1.2417055 0.36676034 2.4317641 4286809224
-1.1933147 0.31836945 2.418766 4283388254
-1.1449237 0.31836945 2.4218655 4288123537
-1.1933147 0.36676034 2.4321501 4283585368
-1.1449237 0.36676034 2.4248583 4280623658
-1.2900965 0.37872887 2.4414964 4288388258
-1.2670507 0.41515124 2.4414964 4287992984
-1.2417055 0.41515124 2.4373791 4283191126
-1.2418492 0.46354216 2.4414964 4284045667
-1.2417055 0.46354216 2.4414659 4284045667
-1.1933147 0.41515124 2.4361362 4284834409
-1.1449237 0.41515124 2.4263453 4280689465
-1.1933147 0.46354216 2.4401574 4284506471
-1.1449237 0.46354216 2.4317629 4280821026
-1.3384874 0.31836945 2.4546206 4288585119
-1.3384874 0.36676034 2.4551899 4288848807
-1.3384874 0.41515124 2.4595222 4288783013
-1.2900965 0.41515124 2.4472606 4287861394
-1.3384874 0.46354216 2.4674931 4287992988
-1.2900965 0.46354216 2.4557259 4287729561
-1.0965328 0.31836945 2.4266927 4284307802
-1.0556816 0.31836945 2.4414964 4285426543
-1.0965328 0.36676034 2.4206803 4278650635
-1.048142 0.33620739 2.4414964 4285426288
-1.048142 0.36676034 2.4290791 4280163871
-1.0123575 0.36676034 2.4414964 4282992711
-1.0965328 0.41515124 2.4166892 4279769110
-1.048142 0.41515124 2.4191298 4279703318
-1.0965328 0.46354216 2.4185405 4281150264
-1.048142 0.46354216 2.4145224 4280689961
-1.048142 0.31836945 2.4476252 4285426543
-0.99975103 0.31836945 2.4650137 4285887092
-0.95136011 0.31836945 2.4672136 4288452774
-0.99975103 0.36676034 2.4462411 4284308315
-0.95136011 0.36676034 2.4638624 4282528027
-1.2417055 0.46377549 2.4414964 4284045667
-1.1933147 0.48728868 2.4414964 4284703082
-1.1788833 0.51193309 2.4414964 4281611555
-1.1449237 0.51193309 2.4371159 4280032029
-1.1449237 0.54901266 2.4414964 4280623401
-1.3384874 0.51193309 2.4729509 4288520102
-1.2900965 0.51193309 2.4658639 4287203983
-1.2417055 0.51193309 2.4490578 4285624440
-1.3384874 0.56032395 2.4705892 4286875016
-1.2900965 0.56032395 2.4710553 4286741879
-1.2417055 0.56032395 2.4555073 4287005830
-1.1933147 0.51193309 2.4430618 4283979613
-1.1933147 0.56032395 2.4480186 4283848022
-1.1449237 0.56032395 2.4427009 4280821032
-1.3384874 0.60871488 2.4621267 4288257439
-1.2900965 0.60871488 2.4701452 4288915884
-1.2417055 0.60871488 2.4612682 4286019701
-1.3384874 0.6571058 2.4509645 4290166718
-1.2900965 0.6571058 2.4696593 4289705140
-1.2417055 0.6571058 2.4703233 4285756275
-1.1933147 0.60871488 2.4563086 4283716943
-1.1449237 0.60871488 2.447552 4282796113
-1.1933147 0.6571058 2.4646249 4282071354
-1.1449237 0.6571058 2.4496946 4286543992
-1.0965328 0.51193309 2.4225571 4279966239
-1.048142 0.51193309 2.4160454 4280821808
-1.1406953 0.56032395 2.4414964 4280952626
-1.0965328 0.56032395 2.4244647 4281413948
-1.048142 0.56032395 2.4142303 4283848800
-1.0503471 0.6571058 2.3931053 4283520091
-1.048142 0.65492463 2.3931053 4283520091
-1.048142 0.6571058 2.3919303 4283520091
-1.1289768 0.60871488 2.4414964 4282928215
-1.0965328 0.60871488 2.423104 4283520091
-1.048142 0.60871488 2.4075341 4283520091
-1.1269957 0.6571058 2.4414964 4286610037
-1.0965328 0.6571058 2.417403 4284440675
-0.85457826 0.28415555 2.3447144 4281213971
-0.77190149 0.31836945 2.2963235 4280753163
-0.75779647 0.31836945 2.2875237 4280753682
-0.75779647 0.33317262 2.2963235 4281214238
-0.83212727 0.31836945 2.3447144 4280098595
-0.80618739 0.31836945 2.3235385 4279964687
-0.80618739 0.33898741 2.3447144 4280294163
-0.75779647 0.36233521 2.3447144 4282988316
-0.70940554 0.28613073 2.2479327 4283383078
-0.67295253 0.31836945 2.2479327 4282923303
-0.66101468 0.31836945 2.2455835 4280290819
-0.66101468 0.32529327 2.2479327 4280882697
-0.61262375 0.31836945 2.2389221 4281408015
-0.61262375 0.33916387 2.2479327 4280950281
-0.70940554 0.31836945 2.2613468 4281608995
-0.70940554 0.36029282 2.2963235 4282331949
-0.69207042 0.36676034 2.2963235 4282858034
-0.66101468 0.36676034 2.2824509 4282660133
-0.74639839 0.36676034 2.3447144 4284239153
-0.70940554 0.36676034 2.3106294 4283516997
-0.61262375 0.36676034 2.2757411 4281672723
-0.66101468 0.37504432 2.2963235 4282528030
-0.70940554 0.38033926 2.3447144 4282395918
-0.66101468 0.40298632 2.3447144 4282328582
-0.61262375 0.38041827 2.2963235 4282131463
-0.6457954 0.41515124 2.3447144 4283645206
-0.61262375 0.41515124 2.3309546 4282657028
-0.61262375 0.4394176 2.3447144 4287590700
-0.86255765 0.31836945 2.3931053 4282662975
-0.85457826 0.31836945 2.3773756 4282136365
-0.85457826 0.32718354 2.3931053 4281807661
-0.90296918 0.30892029 2.4414964 4285361783
-0.89543951 0.31836945 2.4414964 4285361783
-0.85457826 0.3522518 2.4414964 4282987288
-0.80618739 0.35777491 2.3931053 4282460943
-0.78972691 0.36676034 2.3931053 4283053598
-0.75779647 0.36676034 2.3561401 4283645470
-0.83644241 0.36676034 2.4414964 4283052826
-0.80618739 0.36676034 2.408983 4282657802
-0.75779647 0.3930639 2.3931053 4283452484
-0.80618739 0.40892962 2.4414964 4283448091
-0.80079049 0.41515124 2.4414964 4283578907
-0.75779647 0.41515124 2.4088562 4285096798
-0.75779647 0.44117865 2.4414964 4283187516
-0.90296918 0.31836945 2.4474442 4285690750
-0.90296918 0.36676034 2.4723411 4282528028
-0.85457826 0.36676034 2.4583154 4282987291
-0.95136011 0.41515124 2.4643316 4282396698
-0.90296918 0.41515124 2.4885046 4282462492
-0.89791197 0.41515124 2.4898872 4282462492
-0.85457826 0.40504864 2.4898872 4282133522
-0.95136011 0.46354216 2.4542651 4282068250
-0.90296918 0.46354216 2.4846559 4281278995
-0.89184833 0.46354216 2.4898872 4281147666
-0.85457826 0.41515124 2.4969258 4281870103
-0.85457826 0.46354216 2.5067384 4280884753
-0.82424349 0.41515124 2.4898872 4282987285
-0.80618739 0.41515124 2.4548666 4283184917
-0.80618739 0.42116541 2.4898872 4283512863
-0.75779647 0.42174357 2.4898872 4283318319
-0.75779647 0.41515124 2.5090468 4282329609
-0.73625219 0.41515124 2.3931053 4282267437
-0.70940554 0.41515124 2.378829 4283251228
-0.66101468 0.41515124 2.3544025 4284434466
-0.7229498 0.46354216 2.3931053 4280623132
-0.70940554 0.46354216 2.3843319 4278518790
-0.66101468 0.46354216 2.3752565 4278847496
-0.73377419 0.46354216 2.4414964 4283452241
-0.61262375 0.46354216 2.3772285 4281868562
-0.59164357 0.46354216 2.3931053 4282527758
-0.63756794 0.46354216 2.4414964 4282461705
-0.61262375 0.44858024 2.4414964 4283644183
-0.61262375 0.46354216 2.434525 4283184660
-0.70940554 0.43481079 2.4898872 4282459911
-0.70940554 0.46354216 2.4676473 4282526220
-0.66101468 0.44288063 2.4898872 4282198293
-0.66101468 0.46354216 2.4714904 4282132744
-0.70940554 0.41515124 2.5292945 4281015046
-0.61262375 0.4348492 2.4898872 4283513108
-0.92623389 0.56032395 2.4414964 4280425750
-0.95136011 0.52148408 2.4414964 4281608216
-0.95136011 0.56032395 2.4305637 4281017114
-0.95136011 0.51193309 2.4439981 4281739798
-0.90296918 0.51193309 2.4700317 4280950291
-0.8728227 0.51193309 2.4898872 4281081875
-0.90296918 0.56032395 2.4514089 4280425496
-0.85457826 0.54262853 2.4898872 4280425496
-0.85457826 0.56032395 2.4801724 4279899923
-0.85457826 0.51193309 2.5014677 4281213716
-0.83737385 0.56032395 2.4898872 4279899923
-0.80618739 0.51193309 2.5316412 4282990144
-0.80618739 0.56032395 2.5048358 4279637015
-0.75779647 0.56032395 2.5164294 4279241993
-0.70940554 0.48709595 2.3931053 4279045128
-0.66101468 0.49862069 2.3931053 4278781964
-0.70940554 0.51145536 2.4414964 4279571471
-0.70912129 0.51193309 2.4414964 4279571471
-0.66101468 0.51193309 2.4240022 4279703316
-0.66101468 0.51522774 2.4414964 4279044880
-0.61262375 0.47042835 2.3931053 4280883978
-0.65743715 0.51193309 2.4414964 4279045133
-0.66101468 0.51193309 2.4733429 4278716166
-0.70940554 0.56032395 2.5191011 4279307786
-0.66101468 0.56032395 2.5245273 4279964945
-0.75779647 0.62026989 2.4898872 4281083423
-0.70940554 0.65663695 2.4898872 4281215527
-0.75779647 0.6571058 2.4774771 4281742382
-0.70940554 0.6571058 2.4898198 4281215527
-0.70924091 0.6571058 2.4898872 4281215527
-0.75779647 0.60871488 2.4951358 4281083423
-0.70940554 0.60871488 2.5053627 4280294684
-0.66101468 0.60871488 2.5304565 4281808180
-0.66101468 0.6571058 2.5088031 4281018919
-1.2900965 0.77233547 2.1511507 4288716183
-1.2900965 0.75388765 2.1639581 4288386451
-1.2417055 0.78779954 2.1511507 4288847264
-1.2417055 0.75388765 2.1741641 4288584088
-1.2900965 0.89906037 2.1720419 4288386707
-1.2417055 0.89906037 2.1776352 4288649629
-1.2900965 0.91506046 2.1995418 4288255120
-1.2417055 0.91436857 2.1995418 4288584089
-1.2900965 0.92216742 2.2479327 4288519062
-1.2417055 0.92693222 2.2479327 4288913819
-1.1933147 0.85066944 2.1565285 4288978848
-1.1933147 0.89906037 2.1838596 4289045153
-1.1449237 0.85066944 2.1633608 4288716953
-1.1449237 0.89906037 2.1902983 4288716953
-1.1933147 0.91291839 2.1995418 4289045662
-1.1449237 0.9083271 2.1995418 4288387987
-1.1933147 0.93183291 2.2479327 4288585110
-1.1449237 0.93351567 2.2479327 4288058511
-1.2900965 0.91657561 2.2963235 4288649624
-1.2417055 0.92150068 2.2963235 4288781980
-1.2900965 0.90911573 2.3447144 4288715670
-1.2417055 0.91357851 2.3447144 4288584342
-1.1933147 0.92629206 2.2963235 4288781720
-1.1449237 0.92883211 2.2963235 4287466121
-1.1933147 0.91816318 2.3447144 4288256147
-1.1449237 0.92082947 2.3447144 4287071362
-1.0965328 0.85066944 2.1698532 4287663502
-1.0965328 0.89906037 2.1940782 4287860627
-1.0583383 0.89906037 2.1995418 4287992720
-1.048142 0.89515352 2.1995418 4288058001
-1.048142 0.85066944 2.1795557 4288058512
-1.0965328 0.90452147 2.1995418 4287860627
-1.048142 0.89906037 2.2014813 4287926672
-1.0965328 0.93357331 2.2479327 4287860368
-1.048142 0.93013906 2.2479327 4287991955
-1.0012492 0.85066944 2.1995418 4282861385
-0.99975103 0.85066944 2.2004166 4282861385
-0.99975103 0.89906037 2.230993 4284505440
-0.98404551 0.89906037 2.2479327 4282861382
-0.95136011 0.86394787 2.2479327 4282992967
-0.95136011 0.85066944 2.2345111 4281611830
-0.99975103 0.90920579 2.2479327 4285360747
-1.0965328 0.93254912 2.2963235 4287926412
-1.048142 0.93698907 2.2963235 4288057226
-1.0965328 0.92632157 2.3447144 4288057484
-1.048142 0.9332366 2.3447144 4286150005
-0.96375984 0.89906037 2.2963235 4288124552
-0.95136011 0.88531899 2.2963235 4287861638
-0.99975103 0.92514682 2.2963235 4283979356
-0.95878124 0.89906037 2.3447144 4287203713
-0.95136011 0.89187068 2.3447144 4287072384
-0.99975103 0.92404956 2.3447144 4287598215
-1.3340043 0.70549673 2.3447144 4287071362
-1.3353485 0.70549673 2.3931053 4287071362
-1.3384874 0.70266497 2.3447144 4287071362
-1.3384874 0.70166963 2.3931053 4287071362
-1.2900965 0.72925061 2.3447144 4286413434
-1.2900965 0.75177586 2.3931053 4286873467
-1.2879592 0.75388765 2.3931053 4286873467
-1.2417055 0.74311233 2.3447144 4284703078
-1.2417055 0.75388765 2.3572283 4284505440
-1.3248014 0.70549673 2.4414964 4288322967
-1.3384874 0.6755625 2.4414964 4288783781
-1.2973071 0.75388765 2.4414964 4287991943
-1.2900965 0.75388765 2.3948755 4286873467
-1.1933147 0.74328661 2.3447144 4283979352
-1.1933147 0.75388765 2.3584716 4283979352
-1.1531907 0.75388765 2.3931053 4284965982
-1.1449237 0.73283988 2.3447144 4284308053
-1.1449237 0.74714023 2.3931053 4284965982
-1.1543471 0.75388765 2.4414964 4284833885
-1.1449237 0.73841548 2.4414964 4285163360
-1.2417055 0.77319866 2.3931053 4285294695
-1.2900965 0.76015872 2.4414964 4287794564
-1.2417055 0.78903037 2.4414964 4284966749
-1.1933147 0.77073246 2.3931053 4284242779
-1.1933147 0.78099453 2.4414964 4283453262
-1.2900965 0.70549673 2.4712732 4288586395
-1.2417055 0.70549673 2.4816515 4284637280
-1.2900965 0.75388765 2.4606621 4288124041
-1.2506013 0.75388765 2.4898872 4285294953
-1.2417055 0.74377835 2.4898872 4285097832
-1.2417055 0.75388765 2.490988 4284769118
-1.1933147 0.70549673 2.4729826 4282138426
-1.1449237 0.70549673 2.4498434 4284176726
-1.2197112 0.75388765 2.4898872 4285098086
-1.1933147 0.75388765 2.4778957 4282071101
-1.2417055 0.78525949 2.4898872 4284834663
-1.0972033 0.70549673 2.3931053 4284505173
-1.0965328 0.70464832 2.3931053 4284505173
-1.0965328 0.70549673 2.3914015 4284505173
-1.0671712 0.70549673 2.3447144 4285228643
-1.048142 0.69884604 2.3447144 4284571488
-1.0965328 0.71578908 2.3447144 4284505177
-1.1319842 0.70549673 2.4414964 4283913808
-1.3217574 0.89906037 2.3931053 4288781462
-1.2900965 0.9022162 2.3931053 4289176993
-1.2417055 0.90652984 2.3931053 4288715931
-1.2900965 0.89308459 2.4414964 4288979102
-1.2900965 0.89906037 2.4111526 4288912540
-1.2417055 0.89650702 2.4414964 4287926929
-1.2417055 0.89906037 2.4313893 4288321688
-1.1933147 0.90813291 2.3931053 4287005311
-1.1449237 0.91110051 2.3931053 4287399297
-1.1933147 0.89890897 2.4414964 4285689977
-1.1933147 0.89906037 2.4408185 4285689977
-1.1921277 0.89906037 2.4414964 4285689977
-1.1449237 0.9049564 2.4414964 4286544512
-1.2900965 0.88081628 2.4898872 4288780957
-1.2417055 0.87735033 2.4898872 4285165440
-1.1933147 0.88565123 2.4898872 4284570466
-1.154021 0.89906037 2.4898872 4286346615
-1.1449237 0.90177613 2.4898872 4286346101
-1.1449237 0.89906037 2.5129676 4286610299
-1.0965328 0.91810775 2.3931053 4287400584
-1.048142 0.92386496 2.3931053 4287596679
-1.0965328 0.91158485 2.4414964 4285557617
-1.048142 0.91109681 2.4414964 4285821296
-0.97826433 0.89906037 2.3931053 4286611577
-0.95136011 0.86859971 2.3931053 4286151026
-0.99975103 0.91298854 2.3931053 4286348151
-1.0048832 0.89906037 2.4414964 4285821806
-0.99975103 0.89638811 2.4414964 4286019183
-0.99975103 0.89906037 2.4326603 4286019184
-0.95136011 0.87070704 2.4414964 4282598206
-1.0965328 0.91004312 2.4898872 4286477177
-1.048142 0.9023602 2.4898872 4285492332
-1.048142 0.89906037 2.5116796 4285492331
-1.0334905 0.89906037 2.4898872 4285624170
-0.99975103 0.89277816 2.4898872 4285558118
-0.95136011 0.89304769 2.4898872 4281215787
-0.75779647 0.78428626 2.2479327 4282071349
-0.75779647 0.79776919 2.2963235 4282071608
-0.70940554 0.78049392 2.2479327 4281610799
-0.70940554 0.79761565 2.2963235 4281940022
-0.66225737 0.80227852 2.2963235 4281282095
-0.66101468 0.78055298 2.2479327 4281149735
-0.66101468 0.80227852 2.2960024 4281282095
-0.66101468 0.80244243 2.2963235 4281282095
-0.75779647 0.80227852 2.3074589 4282005816
